0.508702 0.624965 0.545437 0.263337 0.606977 0.749822 
0.568814 0.624965 0.535921 0.184724 0.497331 0.847667 
0.528826 0.680205 0.498139 -0.028305 0.544119 0.838530 
0.548826 0.708045 0.483057 -0.054502 0.574320 0.816814 
0.528869 0.707465 0.482333 -0.056826 0.564362 0.823570 
0.528767 0.652265 0.517797 0.037855 0.602174 0.797467 
-0.160690 0.746745 -0.206401 0.009743 0.956677 -0.290989 
-0.154760 0.738485 -0.238063 0.009061 0.965267 -0.261109 
-0.177222 0.746325 -0.214933 0.138960 0.959019 -0.246927 
-0.132548 0.739105 -0.239865 -0.063653 0.959471 -0.274526 
0.920880 -0.975005 0.377175 0.515854 -0.813107 0.269725 
-1.469094 0.770705 0.228073 -0.985444 0.125820 0.114324 
-1.468984 0.743225 0.248331 -0.982258 0.076536 0.171207 
-1.465840 0.797585 0.167781 -0.975403 0.205231 -0.080432 
-0.044464 0.176181 0.686571 -0.515505 0.463964 0.720411 
-0.376746 0.560965 -0.532117 -0.094740 0.561565 -0.821991 
1.146758 -0.943295 -0.238140 0.276952 -0.799300 -0.533308 
1.126818 -0.941965 -0.248486 0.224392 -0.762814 -0.606434 
0.780804 -1.030563 -0.490765 0.781381 -0.575902 -0.240377 
-0.873912 -1.064965 -0.023648 -0.025581 -0.998231 0.053673 
-0.885890 -1.062706 0.007501 -0.063451 -0.995180 0.074774 
-0.894588 -1.065613 -0.027309 -0.056759 -0.996385 0.063211 
-0.878092 -1.061368 0.043471 -0.087010 -0.989229 0.117710 
-0.819270 0.677585 -0.397154 -0.111424 0.174982 -0.978246 
-0.839136 0.648745 -0.400725 -0.235425 0.327168 -0.915170 
-0.859342 0.620185 -0.406331 -0.282449 0.428843 -0.858088 
-0.859246 0.648685 -0.396012 -0.145910 0.214600 -0.965742 
-0.057738 0.022703 -0.949733 -0.294856 0.393586 -0.870718 
-0.060040 0.032677 -0.944187 -0.309338 0.447311 -0.839180 
-0.036306 0.037568 -0.948785 -0.241106 0.407467 -0.880817 
-1.109146 0.195619 0.531113 -0.677616 0.176658 0.713882 
-0.991666 0.232105 0.600407 -0.299638 0.353848 0.886007 
-1.064628 0.196481 0.571127 -0.618283 0.240835 0.748147 
-0.802114 -0.827135 0.396355 -0.473025 0.826995 -0.303853 
-1.395580 1.099825 0.266085 -0.932107 -0.354674 -0.073372 
-1.395062 1.099825 0.245961 -0.936338 -0.320961 0.142323 
-1.383508 1.072526 0.266093 -0.942869 -0.332607 -0.019249 
-1.403564 1.126986 0.246015 -0.970182 -0.241576 0.019673 
-0.450832 0.429205 0.565853 0.125747 0.568135 0.813271 
-0.430590 0.429245 0.561245 0.249166 0.521519 0.816048 
-0.506852 1.360506 -0.048930 0.601215 0.278185 0.749102 
-0.522162 1.360425 -0.035889 0.582077 0.230282 0.779844 
-0.482430 1.389266 -0.083787 0.561853 0.228496 0.795054 
-0.480238 1.418205 -0.080621 0.690938 -0.097740 0.716277 
-0.496650 1.389185 -0.069420 0.733789 0.107384 0.670837 
-0.517494 1.331526 -0.029356 0.528479 0.154129 0.834838 
-0.516554 1.302426 -0.028317 0.594290 -0.046406 0.802911 
0.328475 -0.701947 0.846587 -0.251842 -0.497320 0.830209 
0.432495 0.754205 0.442913 0.023387 0.713926 0.699831 
0.414903 0.761405 0.436369 0.001845 0.731313 0.682040 
0.414459 0.785005 0.407765 -0.016845 0.810954 0.584868 
0.338670 0.803425 0.379955 -0.098140 0.833801 0.543273 
0.319292 0.784605 0.402645 -0.131085 0.790931 0.597700 
0.339039 0.781425 0.409791 -0.059773 0.775439 0.628587 
0.315755 0.804345 0.372813 -0.115591 0.839300 0.531238 
-1.251286 0.720425 0.769569 -0.401179 -0.271906 0.874713 
-1.261742 0.747365 0.779257 -0.549401 -0.356256 0.755805 
-1.105408 0.329745 0.495151 -0.649408 0.181397 0.738488 
-1.109676 0.302765 0.500059 -0.588863 0.233816 0.773673 
0.123652 -0.963067 -0.424559 0.014324 -0.999693 -0.020240 
0.110124 -0.964039 -0.501023 0.024704 -0.997581 0.064983 
0.130958 -0.963159 -0.497681 0.038363 -0.997097 0.065772 
0.122014 -0.967741 -0.532645 -0.022326 -0.924391 0.380792 
0.979460 -1.046831 -0.027137 0.064845 -0.996996 -0.042360 
1.046450 -1.035918 -0.023609 0.158950 -0.985494 -0.059466 
-0.802850 -1.055889 0.406695 -0.034828 -0.999250 0.016936 
-0.769464 -1.055490 0.378461 -0.005047 -0.999037 0.043575 
0.548932 -0.589801 0.849237 0.180850 -0.284018 0.941609 
0.528864 -0.589501 0.851391 0.167330 -0.350245 0.921591 
0.229608 -0.965969 -0.251830 0.038034 -0.999239 -0.008671 
0.173352 -0.969169 -0.223221 0.058067 -0.997077 -0.049646 
0.152512 -0.970083 -0.226604 0.074563 -0.996083 -0.047537 
0.167908 -0.967061 -0.263256 0.049739 -0.997982 -0.039468 
-0.898062 0.250317 -0.547555 -0.445913 0.044074 -0.893990 
-0.918566 0.221373 -0.543729 -0.370578 0.235150 -0.898541 
-0.918106 0.249673 -0.537523 -0.399718 0.119526 -0.908812 
-0.879006 0.222528 -0.557501 -0.306277 0.206038 -0.929378 
0.535624 -0.991751 -0.315957 -0.646537 -0.594361 -0.478252 
-0.158330 -0.969403 -0.438019 0.009204 -0.997941 -0.063471 
-0.193726 -0.971655 -0.405942 -0.030257 -0.999152 -0.027933 
1.320140 0.067185 0.126005 0.987193 0.126331 0.097416 
1.315834 0.095123 0.126047 0.984739 0.144359 0.097213 
0.449038 -0.110795 0.927171 0.169087 -0.071415 0.983010 
0.428999 -0.110569 0.929669 0.060265 -0.037198 0.997489 
0.489100 -0.139883 0.910423 0.340496 -0.173503 0.924099 
-0.988546 1.595125 -0.630711 0.257721 0.872833 0.414418 
-0.971218 1.586986 -0.624509 0.353333 0.856904 0.375328 
-0.975938 1.601506 -0.654945 0.389993 0.842044 0.372649 
-0.955614 1.575985 -0.618565 0.443696 0.818400 0.365178 
0.580028 -1.055899 -0.625641 0.175000 -0.946299 -0.271832 
0.536923 -1.059577 -0.630017 0.076210 -0.975016 -0.208650 
-0.866636 1.594166 -1.422017 -0.381060 -0.172117 -0.908388 
-0.845256 1.565086 -1.421239 -0.027861 -0.338440 -0.940575 
1.546436 -0.662927 0.249825 0.754872 -0.381979 0.533161 
1.051028 0.354705 0.489741 0.593183 0.340197 0.729658 
1.033420 0.434765 0.464333 0.683616 0.420062 0.596839 
1.040028 0.408105 0.474049 0.683503 0.370290 0.629054 
1.052114 0.461045 0.420453 0.725495 0.366266 0.582672 
1.046282 0.487585 0.412185 0.724937 0.385280 0.570986 
1.033136 0.487465 0.428807 0.686787 0.390773 0.612878 
0.024102 -0.485713 -0.931407 -0.316046 -0.314056 -0.895256 
-1.428024 0.880305 0.287471 -0.890434 0.412603 0.192056 
-0.571334 -0.043737 0.689149 0.111063 -0.282161 0.952917 
-0.591164 -0.044023 0.690617 0.034911 -0.264344 0.963796 
-0.591140 -0.015811 0.694155 0.012330 -0.063928 0.997878 
-0.648650 -1.071831 -0.259518 0.010002 -0.999877 0.012118 
-0.654976 -1.071079 -0.298023 0.023640 -0.999595 0.015843 
-0.635070 -1.071799 -0.293319 0.008918 -0.999885 0.012295 
-0.668608 -1.071117 -0.264212 0.009904 -0.999880 0.011899 
-0.874592 1.363446 -1.068085 0.858768 -0.469125 -0.206010 
-0.872124 1.382266 -1.102845 0.873943 -0.451053 -0.181040 
-0.886954 1.369525 -1.152871 0.899910 -0.425313 -0.096285 
-0.850018 1.426386 -1.109221 0.911770 -0.373360 -0.171104 
-0.840564 1.457906 -1.109357 0.945250 -0.278581 -0.169984 
-0.645388 1.245905 0.250559 0.966108 0.047186 0.253790 
-1.127432 1.454746 -0.535429 -0.957733 0.222423 0.182416 
-1.131864 1.454426 -0.555563 -0.963446 0.198135 0.180320 
-1.126584 1.494286 -0.588685 -0.911903 0.368505 0.180658 
-1.142568 1.481565 -0.655931 -0.977026 0.166071 0.133570 
-1.140048 1.509606 -0.676083 -0.949821 0.255245 0.180806 
-1.111478 1.550766 -0.634353 -0.769701 0.573041 0.281398 
-1.115456 1.564466 -0.676117 -0.773197 0.560665 0.296347 
-1.079948 1.607826 -0.693109 -0.482075 0.791337 0.376018 
-1.093640 1.594105 -0.684835 -0.609401 0.679581 0.408412 
1.057042 0.328305 0.498197 0.580583 0.396429 0.711174 
1.064126 0.301985 0.508417 0.558009 0.407950 0.722636 
1.047362 0.301665 0.519403 0.533020 0.416817 0.736311 
-0.716756 -0.059393 -0.645147 -0.131720 -0.017297 -0.991136 
-0.696938 -0.059337 -0.646121 -0.081366 0.010030 -0.996634 
-0.717172 -0.031251 -0.643701 -0.113495 0.023960 -0.993250 
-0.696948 -0.030949 -0.645503 -0.064094 -0.003754 -0.997937 
-0.676568 -0.115927 -0.645453 -0.077361 -0.262636 -0.961789 
-1.232250 0.473465 0.397427 -0.506994 -0.861917 0.007529 
-1.223352 0.463625 0.370997 -0.684730 -0.690624 0.232773 
-1.208354 0.451485 0.383779 -0.747773 -0.615634 0.248658 
-1.265006 0.488445 0.377923 -0.465210 -0.884934 0.021700 
-1.280648 0.497645 0.366805 -0.511582 -0.858468 0.036287 
-1.259026 0.479485 0.345913 -0.510337 -0.806361 0.298894 
-1.119340 1.341006 0.373687 -0.224453 0.931026 0.287770 
-1.059616 1.352726 0.363835 -0.085780 0.946816 0.310131 
1.017262 0.064721 0.650917 0.378483 0.030831 0.925094 
1.016308 0.037637 0.649495 0.330415 -0.055767 0.942187 
0.264558 -0.484613 -0.929539 0.072307 -0.161046 -0.984295 
0.264393 -0.456153 -0.930963 0.083365 0.041431 -0.995658 
-0.423006 -1.012823 -0.762443 -0.481434 0.522150 -0.703975 
1.424726 -0.618561 -0.308788 0.497580 -0.113405 -0.859973 
1.425096 -0.647649 -0.301510 0.528568 -0.232666 -0.816384 
0.588866 0.025717 0.890603 0.280505 0.337775 0.898457 
0.616420 0.032827 0.878471 0.294291 0.290385 0.910532 
0.601513 0.006211 0.892119 0.353265 0.205286 0.912722 
-0.529292 0.795205 0.338537 0.893949 0.170380 0.414520 
-0.541266 0.796985 0.360989 0.877394 0.169698 0.448756 
-0.537716 0.851705 0.328703 0.869876 0.275534 0.409141 
-0.534204 0.823385 0.333301 0.891409 0.214141 0.399417 
-0.535560 0.738605 0.364933 0.868245 -0.062530 0.492180 
-0.547726 0.738865 0.382559 0.829438 -0.072107 0.553925 
-0.547234 0.767725 0.384055 0.866660 0.045945 0.496780 
-0.570176 0.711245 0.421451 0.886203 0.123117 0.446639 
-0.559516 0.682445 0.402081 0.925786 0.076821 0.370160 
-0.581232 0.683465 0.440911 0.740068 -0.071508 0.668719 
-0.568410 0.683025 0.423823 0.865132 -0.020243 0.501136 
0.868308 0.099921 0.739517 0.219889 0.215804 0.951356 
0.882150 0.090679 0.737137 0.370947 0.210294 0.904530 
0.878078 0.117239 0.731543 0.363724 0.249194 0.897556 
0.888062 0.037683 0.745593 0.420710 0.169980 0.891129 
0.890674 0.011027 0.748987 0.394788 0.085178 0.914815 
0.906112 0.037951 0.736333 0.467870 0.182881 0.864669 
-1.017890 1.382806 0.231823 -0.079810 0.992610 0.091416 
-0.995926 1.383686 0.239455 -0.050159 0.995875 0.075606 
-1.005964 1.386846 0.206749 -0.014802 0.997691 0.066279 
-0.997692 1.376905 0.297411 -0.052576 0.976298 0.209948 
-0.989646 1.368125 0.329403 -0.027617 0.964127 0.264000 
-0.976718 1.374746 0.304679 -0.010101 0.974725 0.223179 
-1.101394 1.085886 -0.336637 -0.437012 0.109310 -0.892789 
0.017330 -1.016528 0.844427 0.262832 -0.454199 0.851248 
0.020392 -0.988741 0.850665 0.276231 -0.088690 0.956990 
0.045506 -1.018581 0.833257 0.316207 -0.564358 0.762570 
0.923476 -0.359271 -0.702715 0.634867 -0.213583 -0.742513 
0.924572 -0.330845 -0.709489 0.619763 -0.177855 -0.764370 
0.248465 -0.221621 0.929903 -0.272109 -0.062998 0.960202 
0.268540 -0.220775 0.939191 -0.335334 0.064141 0.939913 
1.252474 0.260265 0.225923 0.900577 0.386892 0.198181 
1.220402 0.343565 0.226091 0.919368 0.356769 0.165768 
1.212708 0.371385 0.206079 0.902343 0.403972 0.150278 
1.202314 0.399085 0.186089 0.885906 0.444214 0.133583 
1.199640 0.398786 0.206027 0.877068 0.453488 0.158430 
0.959306 0.709725 0.061497 0.630481 0.775654 0.029226 
0.966316 0.705485 0.035699 0.612984 0.789869 0.018938 
0.950974 0.717105 0.030079 0.602215 0.798235 0.012576 
0.945282 0.718845 0.113433 0.627829 0.776513 0.053465 
0.952366 0.714825 0.087677 0.633519 0.772915 0.035439 
0.343795 -0.315051 -0.931811 0.255270 -0.078559 -0.963673 
0.324010 -0.371621 -0.928879 0.314087 -0.294602 -0.902529 
-0.603118 1.030505 -0.189226 0.802351 0.185926 -0.567154 
-0.602176 1.057365 -0.182865 0.818694 0.014298 -0.574052 
0.302295 -0.959665 -0.429327 0.008790 -0.999535 -0.029186 
0.316833 -0.958515 -0.464997 0.000790 -0.998643 0.052076 
0.350333 -0.958187 -0.383707 0.032354 -0.999314 0.018007 
0.371098 -0.957303 -0.380383 0.014645 -0.999790 0.014341 
0.220248 0.827605 -0.218439 -0.218934 0.938070 -0.268500 
0.813444 -0.853915 -0.651243 0.696362 -0.120016 -0.707585 
-1.166466 -0.059995 -0.408677 -0.788611 -0.179043 -0.588249 
-1.159494 -0.142185 -0.368818 -0.746926 -0.349627 -0.565563 
-1.158944 -0.114821 -0.388427 -0.748862 -0.396142 -0.531298 
-1.000436 1.704046 -1.258331 -0.745981 -0.403693 -0.529664 
-1.000028 1.676146 -1.237815 -0.792280 -0.360514 -0.492262 
-1.002266 1.732506 -1.278107 -0.692928 -0.435834 -0.574368 
0.996748 0.676285 0.104183 0.671731 0.739120 0.049786 
1.010952 0.662525 0.109585 0.676726 0.734047 0.056722 
0.982094 0.689565 0.098813 0.643927 0.763512 0.049071 
0.974872 0.693425 0.124583 0.651466 0.755581 0.068475 
0.989468 0.680185 0.130003 0.657652 0.749536 0.075424 
0.708746 0.539925 0.540625 0.094778 0.490419 0.866318 
0.748808 0.595265 0.508049 0.129834 0.439004 0.889055 
0.728740 0.623005 0.497625 0.209812 0.464527 0.860345 
0.728784 0.595245 0.510285 0.162503 0.425116 0.890432 
0.228887 -0.473755 0.899129 -0.263839 0.047344 0.963404 
0.228752 -0.530075 0.892361 -0.221639 -0.294416 0.929621 
0.169566 -0.448049 0.873755 -0.468709 0.190018 0.862673 
0.189154 -0.447411 0.884211 -0.387898 0.148374 0.909681 
0.208594 -0.446781 0.890405 -0.280380 0.104389 0.954196 
0.208986 -0.419261 0.886957 -0.341584 0.135660 0.930009 
-1.373890 0.118633 0.151343 -0.994067 0.098699 0.045703 
-1.375902 0.091593 0.131475 -0.998453 -0.027476 0.048340 
-1.365538 0.172333 0.151109 -0.994909 0.078281 0.063476 
-1.369560 0.145411 0.151215 -0.991356 0.131180 -0.002417 
1.121764 -0.474129 0.551563 0.699797 -0.150468 0.698315 
-0.249630 -0.406401 -0.567061 -0.838577 -0.263578 -0.476776 
-0.238988 -0.407211 -0.586719 -0.903240 -0.195553 -0.381989 
-0.244522 -0.435007 -0.566841 -0.866225 -0.267182 -0.422218 
0.963816 -0.641499 0.602559 0.538315 -0.425458 0.727463 
0.970088 -0.613191 0.611961 0.588517 -0.387661 0.709484 
0.971012 -0.670295 0.577405 0.526527 -0.464415 0.712102 
-1.105464 1.360706 -0.090272 -0.264696 0.955999 -0.126499 
-1.071466 1.365665 -0.107439 -0.185273 0.977663 -0.099238 
-1.097056 1.359545 -0.116512 -0.268940 0.955367 -0.122251 
-1.089860 1.367445 -0.055628 -0.166294 0.981231 -0.097636 
-1.342190 1.177425 0.422721 -0.849752 0.410518 0.330752 
-1.357520 1.149466 0.410559 -0.900324 0.303757 0.311686 
-0.064948 0.775305 -0.143976 -0.231745 0.953562 -0.192389 
-0.057390 0.771245 -0.170316 -0.221390 0.947025 -0.232658 
-0.040002 0.783265 -0.134807 -0.230715 0.955398 -0.184351 
-0.511254 0.505825 -0.553543 0.077569 0.479644 -0.874028 
-0.513222 0.481605 -0.568295 0.057706 0.484712 -0.872768 
-0.531706 0.507665 -0.555783 0.152269 0.490894 -0.857810 
-0.491958 0.481945 -0.568763 -0.023449 0.522637 -0.852233 
-0.860142 1.324666 -0.351302 0.839490 0.507095 0.195221 
-0.863050 1.341305 -0.381544 0.833348 0.475823 0.281288 
-0.837056 1.272766 -0.368686 0.977046 0.203657 0.062490 
-0.831962 1.241565 -0.368736 0.989797 0.133504 0.049779 
-1.008026 1.679965 -0.838983 0.124191 0.955216 0.268585 
-1.015004 1.689785 -0.870287 0.111709 0.955366 0.273489 
-0.989572 1.674406 -0.832025 0.262209 0.928962 0.261298 
-0.979014 1.677026 -0.856785 0.326301 0.913818 0.241794 
-0.996556 1.684426 -0.863325 0.225343 0.938755 0.260692 
0.123522 -0.282863 -0.992493 0.135599 -0.087508 -0.986892 
0.434167 0.151581 -0.861585 0.241331 0.607080 -0.757109 
0.432363 0.127440 -0.876911 0.285770 0.472793 -0.833548 
0.470717 0.119666 -0.868323 0.230443 0.390283 -0.891390 
-1.314100 1.307045 0.249987 -0.446179 0.864863 0.230080 
-1.296978 1.319366 0.225425 -0.383006 0.906984 0.175175 
-0.352088 -1.065640 -0.611061 0.033859 -0.998244 0.048597 
-1.460876 0.634705 0.168665 -0.963579 -0.264474 0.039614 
-1.459136 0.634625 0.188713 -0.962157 -0.266701 0.055900 
-1.452734 0.607905 0.148807 -0.938344 -0.345669 -0.004882 
-1.451590 0.607565 0.168791 -0.939653 -0.339282 0.044044 
-0.138368 0.205493 -0.697107 -0.199315 0.201077 -0.959084 
-0.058290 0.175563 -0.729211 -0.291898 0.783194 -0.549002 
-0.077558 0.158929 -0.752279 -0.406046 0.854372 -0.324306 
-0.082714 0.169249 -0.722627 -0.314534 0.645518 -0.695971 
-0.694692 -0.449965 -0.380927 -0.266670 -0.693115 -0.669685 
-0.774072 -0.481849 -0.328242 -0.194757 -0.789570 -0.581935 
-1.088218 0.437085 0.566473 0.032133 -0.960655 0.275881 
0.672650 -1.049641 0.242161 0.007855 -0.999171 0.039953 
-0.866540 0.882045 0.626949 0.743594 0.429637 0.512329 
-0.878672 0.882465 0.644567 0.764885 0.418744 0.489494 
-0.858284 0.853865 0.639371 0.750098 0.442464 0.491506 
-0.902842 0.967625 0.644777 0.866072 0.079828 0.493504 
-0.890792 0.938645 0.627149 0.871634 0.165633 0.461325 
-0.914230 0.968105 0.662865 0.850059 0.095819 0.517899 
-0.925770 0.968465 0.682127 0.836014 0.121032 0.535193 
-0.911860 0.939645 0.666841 0.854303 0.174320 0.489672 
-0.904270 0.996225 0.642635 0.858132 0.075554 0.507839 
-0.915556 0.996585 0.662037 0.838823 0.100868 0.534978 
-0.050990 -0.766427 0.768901 0.005206 0.854456 0.519499 
-1.171658 -0.328817 -0.026352 -0.662419 -0.742172 -0.101891 
-1.196056 -0.300049 -0.046494 -0.758538 -0.646052 -0.085066 
-1.150552 -0.333931 -0.083936 -0.563389 -0.792407 -0.233847 
-1.373466 0.064353 0.091675 -0.972007 -0.231575 -0.039698 
0.865420 -1.043827 0.203525 0.055606 -0.995302 0.079261 
-0.919368 -0.844091 -0.076833 -0.497711 0.822553 0.275121 
-0.816988 1.021945 0.487509 0.644532 0.135266 0.752517 
-0.810616 0.993365 0.496911 0.479544 0.434843 0.762200 
-0.831732 1.021905 0.500975 0.771394 0.050282 0.634368 
0.852962 -0.698847 0.652687 0.586626 -0.601853 0.541889 
1.063600 -1.004462 -0.159894 0.286351 -0.901640 -0.324113 
1.064788 -1.017439 -0.112817 0.304173 -0.923112 -0.235251 
-1.099194 1.452706 -0.755985 -0.591293 -0.705651 -0.390422 
-1.078004 1.452326 -0.796143 -0.731660 -0.616805 -0.290215 
-1.060952 1.424466 -0.795847 -0.869814 -0.419345 -0.259950 
-1.067622 1.424665 -0.775665 -0.854053 -0.457454 -0.247647 
0.748644 0.267745 0.720567 0.220065 0.229029 0.948218 
1.306000 -0.822827 -0.271664 0.344006 -0.747820 -0.567825 
1.306038 -0.790377 -0.306666 0.322558 -0.571266 -0.754726 
0.838828 0.789825 -0.011695 0.471494 0.879883 -0.059153 
0.822898 0.798845 -0.015785 0.475576 0.878334 -0.048548 
0.855944 0.781625 -0.005277 0.482171 0.874697 -0.049155 
0.800972 0.804585 -0.082650 0.451432 0.886150 -0.104628 
0.817778 0.795825 -0.076650 0.471472 0.878152 -0.081017 
0.783478 0.812125 -0.089182 0.442321 0.890296 -0.108280 
1.153808 0.482765 -0.153945 0.792550 0.574205 -0.205310 
1.161412 0.480345 -0.121313 0.812710 0.574528 -0.097056 
-1.088446 -0.291813 0.387537 -0.645290 -0.612532 0.456515 
-1.121766 -0.253909 0.382967 -0.746630 -0.472815 0.467963 
-1.107002 -0.263517 0.394387 -0.713200 -0.506998 0.484043 
-1.047428 -0.340339 0.367865 -0.560534 -0.708997 0.427930 
-1.068224 -0.316773 0.378201 -0.582702 -0.686470 0.434991 
-1.026120 -0.363299 0.357157 -0.511101 -0.759184 0.403008 
0.348015 -0.961933 0.386405 0.024404 -0.996887 0.074969 
-0.689136 -0.618603 -0.285519 -0.936134 -0.116786 -0.331683 
-0.536592 -0.116543 -0.627633 0.179887 -0.407445 -0.895338 
-0.516770 -0.087273 -0.637537 0.148430 -0.380754 -0.912686 
-1.290864 0.356865 -0.149796 -0.895046 0.256435 -0.364876 
-1.283176 0.383426 -0.149740 -0.889945 0.283004 -0.357640 
-1.283362 0.356365 -0.169633 -0.897361 0.280271 -0.340870 
0.641492 -1.035133 0.656005 0.148517 -0.868502 0.472913 
0.619814 -1.037723 0.653845 0.116473 -0.914515 0.387422 
0.660292 -1.012737 0.675643 0.200273 -0.377811 0.903963 
0.647384 -1.048131 0.524747 0.001766 -0.999118 -0.041965 
0.661688 -1.046396 0.490153 -0.090400 -0.992848 -0.077978 
0.668258 -1.047197 0.528191 0.037384 -0.999296 0.003016 
0.650504 -1.043251 0.629167 0.138597 -0.957267 0.253831 
0.097226 0.834165 0.031397 -0.264924 0.963754 -0.031514 
0.146246 0.847425 0.049205 -0.247992 0.968723 -0.008751 
0.171634 0.853925 0.058321 -0.220941 0.975281 0.003433 
0.158396 0.850505 0.024641 -0.244091 0.968264 -0.053707 
-0.027440 0.719425 -0.340989 -0.193435 0.878486 -0.436859 
0.328528 -0.219325 0.956677 -0.133002 0.087495 0.987246 
0.328488 -0.191645 0.952619 -0.129240 0.199886 0.971258 
-0.814312 1.379326 0.071437 0.050248 0.998589 -0.017206 
-0.416830 0.785865 0.168705 -0.042977 0.893289 0.447423 
-0.433908 0.771325 0.192649 -0.067798 0.871481 0.485720 
0.969918 0.010889 0.687655 0.761359 0.139493 0.633146 
0.953472 0.037669 0.698987 0.698342 0.152966 0.699228 
0.974466 -0.042323 0.693223 0.794894 0.055220 0.604231 
0.972418 -0.015659 0.690657 0.800887 0.139638 0.582306 
-0.982352 1.508065 -0.455203 0.261651 0.854163 0.449383 
-0.953166 1.505186 -0.473343 0.469271 0.757780 0.453381 
-0.968540 1.516726 -0.479101 0.323733 0.827992 0.457849 
-1.250696 0.543745 -0.232914 -0.629265 -0.478649 -0.612308 
-1.266812 0.572245 -0.232234 -0.663165 -0.349145 -0.662050 
-1.282350 0.519485 -0.170898 -0.636990 -0.462280 -0.616880 
-1.302402 0.519705 -0.151647 -0.683002 -0.462808 -0.565082 
-0.113046 0.738405 0.190279 -0.233546 0.887335 0.397610 
-0.153576 0.742985 0.175739 0.132086 0.891763 0.432796 
-0.469930 -1.069637 -0.593545 -0.044495 -0.998873 0.016526 
-0.462738 -1.068486 -0.556119 -0.009255 -0.999758 0.019971 
-0.482732 -1.067734 -0.560751 -0.041390 -0.999015 0.015975 
-1.078684 0.676285 -0.371773 -0.257225 -0.017461 -0.966194 
-1.058856 0.676565 -0.377217 -0.258434 -0.031524 -0.965514 
-0.063888 -1.041080 0.656223 0.075562 -0.923823 -0.375288 
-0.078288 -1.043877 0.690601 0.014537 -0.999815 -0.012627 
0.328965 0.879425 0.000705 -0.143016 0.989407 -0.024921 
0.351943 0.882525 0.009145 -0.124031 0.992203 -0.012236 
0.339722 0.881085 -0.024052 -0.153683 0.985528 -0.071521 
0.420356 0.882705 -0.108942 -0.073585 0.992016 -0.102415 
0.346860 0.878445 -0.050132 -0.129120 0.987482 -0.090590 
0.369845 0.881805 -0.041640 -0.111544 0.989080 -0.096326 
0.491900 0.892445 -0.025110 -0.012721 0.997298 -0.072353 
0.483502 0.894105 0.000357 -0.030004 0.998772 -0.039419 
0.478505 0.889745 -0.058661 -0.022773 0.995918 -0.087345 
0.448335 0.889545 -0.041241 -0.063427 0.996357 -0.057010 
0.470044 0.891545 -0.033146 -0.044748 0.996513 -0.070425 
0.719602 0.670885 0.467493 0.333589 0.611828 0.717206 
0.707966 0.698405 0.450605 0.433958 0.622484 0.651302 
0.700790 0.671185 0.475907 0.287322 0.552582 0.782368 
0.722020 0.704865 0.431483 0.472793 0.644650 0.600743 
0.751266 0.701465 0.414537 0.291493 0.747415 0.596995 
0.736806 0.715285 0.409193 0.446733 0.663397 0.600279 
0.692692 -0.395553 0.845769 0.445792 -0.076894 0.891828 
0.739028 -0.422817 0.807079 0.606385 -0.164810 0.777904 
0.512148 -1.009187 -0.267295 -0.666473 -0.554158 -0.498721 
0.515251 -1.040964 -0.237626 -0.539417 -0.734509 -0.411736 
0.782546 -0.670295 0.727523 0.172022 -0.524208 0.834035 
0.804926 -0.668325 0.724085 0.307576 -0.510776 0.802811 
0.822042 -0.668957 0.713923 0.498408 -0.480803 0.721400 
0.812586 -0.640205 0.735863 0.384364 -0.386697 0.838290 
0.177008 0.280865 0.661935 -0.288332 0.494736 0.819818 
0.188784 0.292565 0.663213 -0.140701 0.345353 0.927866 
0.130408 0.255351 0.679721 -0.270726 0.772924 0.573843 
0.128180 0.266425 0.671059 -0.047542 0.484537 0.873478 
1.087800 -1.010043 -0.112955 0.309386 -0.922332 -0.231480 
1.063692 -1.029749 -0.063106 0.278315 -0.948223 -0.153019 
-1.037196 -0.040751 -0.533771 -0.417241 -0.015697 -0.908660 
0.189328 1.861406 -0.809215 -0.212685 0.122490 -0.969413 
-0.497760 0.765485 0.278039 0.852710 0.213675 0.476685 
-0.479188 0.739365 0.265055 0.610245 0.474126 0.634669 
-0.507656 0.765625 0.299413 0.899598 0.089729 0.427402 
-0.506292 0.737665 0.300839 0.841144 0.181825 0.509329 
0.419314 0.242682 -0.717341 0.239262 0.888398 -0.391796 
-0.321650 -1.052217 0.470347 0.003029 -0.999995 0.001007 
-0.313820 -1.051044 0.506271 -0.033908 -0.999259 0.018214 
0.676002 -1.044669 0.455399 -0.134761 -0.988199 -0.072821 
0.671290 -1.040595 0.414715 -0.316477 -0.945306 -0.078983 
-0.804054 -1.022426 -0.398151 -0.389972 0.251796 -0.885732 
-0.810824 -0.996743 -0.388437 -0.376706 0.220975 -0.899590 
-1.248558 1.099985 0.642217 -0.490131 0.598707 0.633499 
-1.233756 1.180206 0.568609 -0.502586 0.655107 0.564129 
-1.249248 1.179585 0.555871 -0.491636 0.669628 0.556679 
-1.249806 1.153326 0.585401 -0.487991 0.645600 0.587423 
-1.231966 1.206925 0.537943 -0.517934 0.668786 0.533357 
0.651232 0.863405 -0.109201 0.261161 0.959060 -0.109539 
0.639044 0.862685 -0.141987 0.254104 0.952605 -0.167256 
0.619514 0.866005 -0.149080 0.182444 0.962334 -0.201564 
0.612336 0.870965 -0.123599 0.182278 0.973055 -0.141205 
0.685490 0.824285 -0.221749 0.315034 0.874940 -0.367742 
0.688396 0.810385 -0.246436 0.317684 0.835489 -0.448369 
-1.450522 0.660965 0.028791 -0.965650 -0.125675 -0.227434 
-1.444064 0.633845 0.028805 -0.955463 -0.201011 -0.216068 
-1.448542 0.634025 0.048771 -0.953468 -0.227287 -0.198089 
-1.446332 0.687625 0.008579 -0.962075 -0.052627 -0.267662 
-1.439786 0.687385 -0.011505 -0.949616 -0.086546 -0.301230 
-1.443984 0.660665 0.008687 -0.946562 -0.131283 -0.294592 
-0.185340 -0.440551 -0.746453 -0.929145 -0.311818 -0.198643 
-0.711184 -0.246075 0.621909 0.075952 -0.513943 0.854455 
-1.216512 -0.222919 0.196479 -0.739354 -0.656557 0.149294 
-1.251336 -0.185903 0.192525 -0.766046 -0.586326 0.263429 
-0.744590 -0.526683 -0.273914 -0.254879 -0.811265 -0.526200 
0.704880 0.806505 0.310411 0.320830 0.878312 0.354452 
0.688210 0.815485 0.304151 0.324742 0.891700 0.315300 
-0.612336 -0.821803 -0.384535 -0.466417 0.316559 -0.825982 
-0.592564 -0.792031 -0.387450 -0.482702 0.186911 -0.855607 
-0.264092 -0.179963 -0.727317 -0.978288 0.003846 -0.207217 
-0.261240 -0.208391 -0.727215 -0.963723 -0.133892 -0.230893 
-0.261128 -0.236423 -0.707053 -0.961927 -0.242125 -0.126772 
-0.266326 -0.207857 -0.707187 -0.978900 -0.126195 -0.160719 
-0.013424 1.420666 -0.397255 0.265896 -0.911819 -0.312867 
-0.029416 1.421325 -0.409628 0.257276 -0.894000 -0.366841 
0.170634 1.714906 -0.614923 0.543853 0.449594 0.708583 
-0.360356 1.361606 -0.117734 0.527278 -0.297781 0.795804 
-0.376922 1.361665 -0.106481 0.526287 -0.215619 0.822515 
-1.091148 1.087986 0.726667 0.014463 0.570997 0.820825 
-1.071300 1.088346 0.724633 0.107923 0.543366 0.832530 
-0.121054 1.566846 -0.369306 0.331575 0.610453 0.719309 
-0.125652 1.538206 -0.340546 0.269195 0.697028 0.664595 
-0.105314 1.537205 -0.346682 0.249495 0.716406 0.651548 
-0.138948 1.566705 -0.360061 0.358396 0.584425 0.728011 
1.029746 0.623505 0.259227 0.700097 0.676818 0.227556 
1.010802 0.651165 0.223523 0.669717 0.733665 0.114961 
0.996314 0.664565 0.218127 0.650920 0.751906 0.104594 
1.002784 0.654105 0.249049 0.659530 0.722718 0.206636 
0.897144 0.593005 0.442781 0.528665 0.511402 0.677481 
0.929198 0.593545 0.418711 0.441142 0.603954 0.663802 
0.904358 0.619965 0.417901 0.577710 0.513469 0.634508 
0.912750 0.593525 0.430195 0.504552 0.534103 0.678352 
0.864978 0.678825 0.398223 0.487936 0.668242 0.561579 
0.853246 0.673265 0.414419 0.459937 0.659456 0.594622 
0.850728 0.692245 0.392899 0.433283 0.716198 0.547107 
0.941780 0.672605 0.311885 0.583309 0.696344 0.418158 
-1.205126 1.205846 -0.213978 -0.759531 0.329758 -0.560689 
0.035410 -1.066972 -0.645321 0.000540 -0.980174 0.198139 
-1.000358 -0.205229 0.543111 -0.433297 -0.421663 0.796526 
-1.028520 -0.214427 0.519917 -0.544151 -0.429896 0.720478 
-0.981962 -0.209081 0.550111 -0.397995 -0.449960 0.799460 
-1.003860 -0.185941 0.550951 -0.444703 -0.403596 0.799593 
-0.921900 -0.101791 0.635873 -0.408862 -0.350436 0.842631 
-0.953740 -0.046527 0.637705 -0.501569 -0.232790 0.833209 
-0.947848 -0.073821 0.632423 -0.496054 -0.279132 0.822202 
-0.995318 -0.157935 0.569841 -0.483589 -0.399988 0.778558 
-0.987714 -0.129267 0.589177 -0.469061 -0.351088 0.810382 
-0.371028 -0.728381 0.569661 0.037758 0.076281 0.996371 
-1.070278 1.341805 -0.635403 -0.986246 0.006944 -0.165138 
-1.067948 1.341726 -0.655391 -0.984476 0.115992 -0.131731 
-0.572514 -0.988929 -0.456485 -0.215261 0.185539 -0.958769 
-0.552302 -0.988243 -0.463713 -0.192417 0.164652 -0.967401 
-0.570630 -0.999933 -0.458547 -0.194538 0.212250 -0.957656 
-0.631152 0.011987 0.690253 -0.113569 0.153592 0.981586 
-0.651172 0.011859 0.688243 -0.143340 0.153859 0.977641 
-0.611138 0.012207 0.692927 -0.070411 0.139372 0.987734 
1.140358 0.485426 -0.186856 0.783069 0.558957 -0.272711 
1.141400 0.468725 -0.215535 0.779037 0.549207 -0.302445 
1.128424 0.484885 -0.220417 0.796776 0.534217 -0.282418 
-1.074198 -0.219711 -0.414150 -0.609188 -0.373120 -0.699765 
-1.075062 -0.250287 -0.394839 -0.527639 -0.492054 -0.692445 
-0.053576 0.725845 0.270745 -0.246640 0.914091 0.321881 
-0.048132 0.714565 0.302529 -0.243484 0.896034 0.371267 
-1.422076 0.798685 0.507787 -0.950920 0.306269 -0.044168 
-1.423680 0.798585 0.527705 -0.946967 0.320115 -0.027937 
-1.174332 -0.186613 0.384939 -0.624537 -0.630246 0.461241 
-1.170040 -0.203023 0.364799 -0.630641 -0.650777 0.422825 
-1.189874 -0.177555 0.373943 -0.656768 -0.625325 0.421456 
-0.664032 0.741565 0.532941 0.723890 0.144923 0.674523 
-0.636962 0.741185 0.501857 0.763132 0.127090 0.633623 
-0.715114 0.798425 0.564613 0.582973 0.316166 0.748453 
-0.695656 0.770085 0.557499 0.691211 0.240120 0.681593 
0.972330 0.204575 -0.596179 0.563575 0.387518 -0.729529 
0.990566 0.219112 -0.571457 0.627311 0.367864 -0.686409 
0.955072 0.212237 -0.604397 0.514271 0.392119 -0.762737 
0.956660 0.235833 -0.589233 0.508732 0.425207 -0.748593 
0.973970 0.228249 -0.581149 0.571753 0.398484 -0.717153 
-0.957700 1.025526 0.707521 0.649093 0.233970 0.723834 
-0.961904 1.054025 0.701503 0.612108 0.293666 0.734224 
-0.691152 0.482785 0.516847 0.013079 0.581097 0.813729 
-0.711162 0.481985 0.517991 0.012699 0.576352 0.817103 
-0.731150 0.481945 0.517953 0.015154 0.542809 0.839720 
0.521378 -0.993671 0.699539 0.182391 0.000841 0.983226 
0.498893 -0.968213 0.700407 0.139302 0.053308 0.988814 
1.269404 -0.493051 0.357815 0.017004 0.511302 0.859233 
1.289186 -0.465617 0.344835 -0.158396 0.522968 0.837506 
1.269780 -0.466039 0.344587 0.245358 0.385596 0.889447 
1.288158 -0.491909 0.364517 -0.297472 0.581336 0.757337 
1.308482 -0.491755 0.371777 -0.281897 0.576829 0.766683 
1.308658 -0.465159 0.351809 -0.297218 0.561412 0.772320 
0.649056 0.321925 0.711345 -0.050939 0.667959 0.742453 
0.648950 0.295385 0.731169 -0.035647 0.487464 0.872415 
0.668582 0.295305 0.730783 0.095965 0.472179 0.876263 
0.549506 0.266985 0.721619 -0.223241 0.592920 0.773699 
0.589565 0.267445 0.733345 -0.192849 0.454007 0.869878 
0.954476 0.170595 0.665925 0.604429 0.385001 0.697453 
0.960158 0.144399 0.674021 0.581303 0.303679 0.754894 
-0.163146 -0.920459 0.837821 -0.598554 0.387017 0.701392 
-0.152786 -0.894379 0.826589 -0.490818 0.561530 0.666169 
-0.829460 1.237345 -0.309208 0.950988 0.268836 -0.152806 
-0.833898 1.251826 -0.340715 0.980739 0.195256 0.005107 
-0.828378 1.210665 -0.348894 0.996088 0.067840 -0.056619 
-0.828858 1.210485 -0.368771 0.999763 0.016461 -0.014268 
-0.232828 -0.323149 -0.686549 -0.904926 -0.304861 -0.296932 
-0.067044 0.383586 -0.666503 -0.024846 0.416084 -0.908987 
-0.078850 0.376906 -0.667675 -0.060018 0.331315 -0.941609 
0.000856 0.413245 -0.658153 -0.039477 0.433135 -0.900464 
-1.115256 1.453326 -0.735667 -0.581889 -0.712159 -0.392728 
-0.739962 0.655645 -0.427769 -0.257123 0.633560 -0.729719 
-0.717284 0.659245 -0.431807 -0.254728 0.680902 -0.686648 
-0.739648 0.676565 -0.409124 -0.144205 0.620768 -0.770618 
-0.739382 0.698205 -0.391696 -0.011491 0.567566 -0.823248 
-0.671174 0.686225 -0.420653 -0.269864 0.723266 -0.635657 
-0.669956 0.668225 -0.442197 -0.255524 0.697432 -0.669550 
-0.647378 0.671925 -0.446339 -0.249405 0.677750 -0.691702 
0.907410 0.585405 -0.404159 0.667010 0.544747 -0.508281 
0.923124 0.574185 -0.391753 0.640428 0.533368 -0.552604 
0.923444 0.554965 -0.411088 0.658811 0.517833 -0.545726 
-0.783694 -0.845601 0.634091 -0.543427 0.601905 0.585147 
-0.767020 -0.820595 0.616765 -0.399267 0.776991 0.486694 
-0.796626 -0.845783 0.618799 -0.636802 0.602568 0.481035 
-0.767732 -0.845623 0.646319 -0.393966 0.579515 0.713409 
-0.747262 -0.845683 0.654417 -0.348579 0.574482 0.740583 
-1.186366 0.194105 0.466817 -0.686746 0.136605 0.713946 
-1.200584 0.193703 0.452819 -0.697535 0.138314 0.703075 
-1.187190 0.167071 0.468459 -0.666878 0.029813 0.744570 
-1.214664 0.193281 0.438681 -0.715448 0.128764 0.686698 
0.330783 0.659085 -0.480687 0.045280 0.658223 -0.751460 
0.495346 0.245519 -0.680495 0.142015 0.671473 -0.727293 
-0.431254 -0.301809 0.627567 0.103617 -0.186787 0.976921 
-0.451170 -0.301465 0.629373 -0.025754 -0.176712 0.983926 
-0.451112 -0.272839 0.633579 -0.076181 -0.107556 0.991276 
-0.511112 -0.274163 0.618871 -0.186411 -0.211726 0.959387 
-1.115208 -0.334885 -0.166853 -0.708659 -0.653288 -0.266490 
-1.150880 -0.304697 -0.166924 -0.622820 -0.722013 -0.301318 
0.281044 0.435345 -0.669339 -0.050794 0.262521 -0.963588 
0.260868 0.435585 -0.665671 -0.149848 0.295146 -0.943628 
-1.228532 -0.109631 -0.288091 -0.756673 -0.510971 -0.407865 
-0.099586 -0.442103 0.591255 -0.838237 -0.202034 0.506498 
-0.095448 -0.470999 0.587597 -0.821564 -0.136875 0.553442 
-0.084270 -0.470033 0.604821 -0.820500 -0.160253 0.548725 
-0.113324 -0.419075 0.577833 -0.766406 -0.243328 0.594485 
-0.131778 -0.420271 0.559085 -0.519480 -0.236987 0.820961 
-0.110212 -0.442937 0.573371 -0.764338 -0.186660 0.617208 
-0.973864 -0.301531 -0.426525 -0.456683 -0.707734 -0.539030 
-0.934272 -0.300291 -0.457621 -0.440789 -0.694150 -0.569088 
-0.033498 -0.895203 -0.794745 0.094045 0.152205 -0.983864 
-0.033448 -0.923675 -0.796813 0.108822 -0.015324 -0.993943 
-0.053470 -0.923519 -0.798969 0.083996 0.007373 -0.996439 
-0.053322 -0.952371 -0.796547 0.136546 -0.080891 -0.987326 
-0.033434 -0.952527 -0.793627 0.122345 -0.095045 -0.987926 
0.984364 0.672785 -0.128636 0.619952 0.763448 -0.181125 
0.980054 0.682685 -0.101793 0.635021 0.756031 -0.158637 
0.995342 0.670965 -0.096005 0.632333 0.763666 -0.130266 
0.968894 0.684305 -0.134395 0.581980 0.787697 -0.202070 
-0.995226 1.422925 -1.115599 -0.979156 0.057028 -0.194939 
-1.010508 1.367285 -1.075519 -0.978023 0.154491 -0.140011 
-0.752432 0.938265 0.510739 0.403621 0.528863 0.746588 
1.341644 -0.071781 0.006145 0.993666 0.095409 0.059374 
1.337278 -0.044085 0.026147 0.993345 0.095961 0.063691 
0.646298 -0.751752 -0.772359 0.262357 -0.405418 -0.875674 
0.626450 -0.842429 -0.720607 0.013942 -0.224734 -0.974320 
0.646452 -0.813629 -0.723837 0.122958 -0.413740 -0.902054 
1.509864 -0.783285 0.006743 0.690345 -0.718818 -0.081999 
-0.517866 1.157245 -0.134699 0.444312 -0.870034 0.213607 
-0.535204 1.151825 -0.130212 0.455748 -0.873172 0.172814 
0.276148 0.806665 0.357575 -0.196603 0.830693 0.520861 
0.254131 0.806085 0.350005 -0.208003 0.827359 0.521739 
0.255634 0.785565 0.379835 -0.199934 0.807911 0.554352 
0.272438 0.823165 0.327207 -0.170406 0.871095 0.460602 
-0.999576 0.503805 -0.407522 -0.437557 0.404005 -0.803321 
-0.979424 0.504325 -0.417483 -0.422905 0.407240 -0.809510 
-0.999282 0.475246 -0.419899 -0.430553 0.345514 -0.833813 
-0.979784 0.532765 -0.400518 -0.401526 0.427898 -0.809741 
-0.192036 -0.608181 -0.585313 -0.967100 -0.123439 -0.222441 
0.302025 -0.959773 0.447155 0.049828 -0.996629 0.065175 
0.281269 -0.960703 0.443709 0.005373 -0.997361 0.072398 
0.294684 -0.960615 0.410279 0.024254 -0.998399 0.051106 
0.723364 -1.048553 -0.376243 0.180168 -0.983527 -0.014646 
0.715320 -1.051607 -0.412719 0.147066 -0.989127 0.000003 
0.914536 -0.557311 0.672959 0.535442 -0.245591 0.808076 
0.933050 -0.556639 0.664599 0.419089 -0.262516 0.869166 
0.973882 -0.501879 0.653933 0.587843 -0.082184 0.804790 
0.971986 -0.529259 0.650937 0.624860 -0.205330 0.753253 
0.990198 -0.474941 0.642533 0.642099 -0.058274 0.764404 
0.974400 -0.474795 0.654831 0.536871 -0.003718 0.843656 
0.973322 -0.448107 0.653557 0.492615 0.078370 0.866712 
0.955976 -0.448293 0.663211 0.406707 0.087679 0.909342 
0.953738 -0.421727 0.660379 0.425522 0.110797 0.898140 
0.949578 -0.368439 0.654827 0.482356 0.045710 0.874782 
1.367238 -0.335549 -0.145881 0.073825 0.745521 -0.662381 
1.367346 -0.355187 -0.165969 -0.018461 0.694796 -0.718970 
1.385902 -0.319449 -0.121815 0.085096 0.832213 -0.547887 
1.364236 -0.299239 -0.102619 0.599113 0.662342 -0.449852 
1.382516 -0.305447 -0.096225 0.248979 0.877290 -0.410331 
-1.045296 1.202345 -0.614545 -0.770739 -0.620501 -0.144711 
-1.068356 1.231266 -0.614461 -0.727339 -0.662373 -0.179555 
-1.062024 1.230386 -0.634651 -0.740259 -0.657162 -0.141966 
-1.047426 1.202725 -0.594431 -0.777954 -0.601960 -0.180091 
-1.031916 1.169765 -0.575543 -0.680238 -0.696759 -0.227605 
-1.054444 1.203105 -0.574431 -0.773999 -0.592924 -0.222186 
-0.014206 -0.781751 -0.780325 -0.386901 -0.329428 -0.861269 
0.005518 -0.781379 -0.789243 -0.359563 -0.412211 -0.837136 
-0.034474 -0.753323 -0.780801 -0.478431 -0.294594 -0.827235 
-0.014800 -0.752601 -0.791529 -0.447539 -0.324608 -0.833270 
0.285375 0.067855 -0.936649 0.165731 0.274941 -0.947069 
0.302196 0.051954 -0.938113 0.136001 0.243391 -0.960346 
-1.349788 0.008795 -0.067689 -0.955391 -0.295272 -0.006466 
-1.340808 -0.018595 -0.087665 -0.905514 -0.422195 0.042370 
0.248857 -0.082079 0.938651 0.159949 0.155038 0.974874 
1.330640 -0.072461 0.166243 0.991310 0.108071 0.075003 
1.329702 -0.044585 0.146113 0.994552 0.084952 0.060403 
1.335346 -0.138039 0.191169 0.981958 0.077619 0.172434 
1.337772 -0.127933 0.166191 0.991402 0.100597 0.083677 
1.190374 -0.260707 0.475613 0.789055 -0.060431 0.611343 
1.203218 -0.234055 0.459785 0.820114 -0.049612 0.570045 
1.216498 -0.207643 0.443215 0.822461 -0.051695 0.566468 
1.204578 -0.207007 0.461655 0.838242 -0.089229 0.537948 
0.503347 -0.119605 -0.900763 0.287382 0.024281 -0.957508 
0.482954 -0.091051 -0.907479 0.350601 0.042154 -0.935576 
-0.163888 -0.554754 -0.685501 -0.945789 -0.207348 -0.249980 
-0.171632 -0.525861 -0.685661 -0.898831 -0.242978 -0.364780 
-0.720934 -0.724981 -0.083156 -0.899717 0.315550 0.301558 
-0.725568 -0.744387 -0.074984 -0.841710 0.411386 0.349695 
-0.711482 -0.716015 -0.061407 -0.889922 0.271968 0.366159 
-0.713380 -0.697909 -0.083534 -0.929776 0.251764 0.268575 
-0.716120 -0.642883 -0.124146 -0.979040 -0.080130 0.187245 
-0.716400 -0.670295 -0.123885 -0.968260 0.113964 0.222454 
1.368824 -0.490875 0.384427 -0.033898 0.483465 0.874707 
1.449464 -0.492319 0.371905 0.327491 0.280791 0.902168 
1.429590 -0.491455 0.377859 0.245640 0.327826 0.912245 
-0.481258 -1.029564 0.661057 0.117349 -0.810647 0.573655 
0.148978 0.162851 0.851785 -0.049839 0.710039 0.702397 
-0.851262 0.151043 0.660471 -0.388215 0.356514 0.849816 
-0.870978 0.205423 0.631665 -0.235101 0.198166 0.951555 
-0.891436 0.205287 0.625777 -0.219865 0.150529 0.963847 
-0.891408 0.233377 0.623099 -0.244058 0.074452 0.966898 
-0.911346 0.205037 0.622839 -0.102503 0.155805 0.982455 
-0.379972 0.703105 0.332215 -0.227092 0.755110 0.615010 
-0.357722 0.703145 0.339139 -0.112556 0.767901 0.630603 
1.069792 0.567985 -0.223861 0.711028 0.611876 -0.346477 
1.061198 0.582405 -0.215050 0.684743 0.665232 -0.297647 
1.071966 0.552185 -0.246758 0.711117 0.603860 -0.360091 
0.863872 -0.186639 -0.745499 0.392604 0.012646 -0.919621 
0.863302 -0.158499 -0.744575 0.462054 0.075025 -0.883673 
-0.254458 -0.555267 -0.460433 -0.362833 -0.413320 -0.835176 
-0.420802 1.318605 -0.364522 -0.129385 -0.589562 -0.797293 
-0.398108 1.311566 -0.361910 -0.069308 -0.624569 -0.777888 
-0.442284 1.324265 -0.363769 -0.203977 -0.504343 -0.839066 
-0.421830 1.325645 -0.369674 -0.159506 -0.550147 -0.819693 
-0.035308 -0.437573 0.695919 -0.814868 -0.340826 0.468858 
-0.027736 -0.465557 0.690111 -0.825059 -0.258833 0.502277 
-0.879256 0.619905 -0.401947 -0.174567 0.345551 -0.922020 
-0.879342 0.591665 -0.417419 -0.302781 0.492743 -0.815799 
-0.097552 -0.033549 -0.954707 -0.404005 0.235943 -0.883805 
-0.117196 -0.062125 -0.951649 -0.480951 0.152762 -0.863337 
-0.117400 -0.034519 -0.944267 -0.520608 0.262117 -0.812565 
-0.097648 -0.061265 -0.960101 -0.387873 0.155727 -0.908462 
-1.356384 1.125746 0.025727 -0.832928 -0.259387 -0.488825 
0.030220 1.655666 -0.501901 0.402722 0.448597 0.797857 
0.049164 1.655185 -0.509947 0.389071 0.468415 0.793228 
0.041252 1.684345 -0.521369 0.455293 0.372091 0.808861 
0.041220 1.625185 -0.486603 0.360155 0.550630 0.753058 
-0.077548 0.784605 -0.032048 -0.243912 0.967260 -0.070103 
-0.102776 0.778165 -0.041226 -0.144094 0.987710 -0.060550 
-0.052484 0.791945 -0.022952 -0.257486 0.963686 -0.070786 
-1.367136 0.144831 0.051363 -0.982690 0.057839 -0.175995 
-1.369120 0.117725 0.031563 -0.959645 0.181121 -0.215119 
-1.367816 0.171831 0.031187 -0.981734 -0.153299 -0.112683 
-1.365446 0.171577 0.011161 -0.982918 -0.155343 -0.098697 
-1.364566 0.144623 0.031391 -0.987817 0.010532 -0.155264 
0.865040 0.754305 0.254703 0.457958 0.844421 0.277899 
0.813646 0.778765 0.235639 0.253638 0.923800 0.286811 
0.796070 0.786465 0.229347 0.329468 0.903668 0.273559 
-0.253952 -0.068051 -0.727739 -0.877139 0.113912 -0.466531 
-0.245456 -0.037165 -0.726973 -0.723090 0.221526 -0.654269 
-0.246558 -0.068725 -0.747923 -0.916764 0.206090 -0.342157 
-0.236830 -0.154241 -0.787675 -0.969200 -0.031144 -0.244299 
-0.234068 -0.126315 -0.807791 -0.941875 -0.004520 -0.335935 
-0.231960 -0.154691 -0.807855 -0.965267 -0.031954 -0.259303 
-0.238706 -0.125877 -0.787619 -0.982984 0.006163 -0.183589 
-0.238898 -0.069324 -0.767907 -0.929303 0.236981 -0.283261 
-0.235158 -0.040819 -0.748397 -0.864171 0.340621 -0.370386 
-0.236978 -0.097715 -0.787945 -0.966228 0.057688 -0.251149 
-0.831704 1.616106 -1.169081 0.969847 0.209949 0.123766 
-0.188692 0.775105 -0.072761 0.239078 0.967749 -0.079400 
-0.207392 0.779885 -0.079577 0.303025 0.947600 -0.101143 
-0.214764 0.784405 -0.053227 0.343016 0.937640 -0.056313 
-0.181280 0.770765 -0.099165 0.183082 0.977846 -0.101480 
0.251758 -1.030607 -0.561389 -0.148750 -0.622859 0.768063 
0.271653 -1.031343 -0.556745 -0.142698 -0.604251 0.783912 
0.116248 -0.975427 0.134409 0.045516 -0.998939 -0.007062 
0.102830 -0.975497 0.167863 -0.022389 -0.999721 0.007494 
0.089332 -0.975569 0.201359 0.027564 -0.999504 0.015235 
0.082828 -0.974781 0.163193 0.032601 -0.999458 0.004515 
-1.237836 1.260946 -0.153435 -0.671247 0.291536 -0.681494 
-1.239140 1.287086 -0.132763 -0.567481 0.637604 -0.520986 
-1.258858 1.261065 -0.133188 -0.737735 0.287740 -0.610698 
-1.259758 1.179165 -0.133767 -0.894863 0.039757 -0.444566 
-1.281336 1.179646 -0.093684 -0.791680 -0.096724 -0.603231 
-0.040988 -0.968287 0.420139 0.024481 -0.996940 0.074242 
-0.053448 -0.966771 0.452107 0.024536 -0.996945 0.074155 
0.020676 -0.967115 0.431729 0.021302 -0.997038 0.073908 
-1.134696 0.293325 -0.408837 -0.631055 0.259934 -0.730893 
-1.118256 0.328145 -0.407848 -0.572423 0.323966 -0.753245 
-1.118002 0.299666 -0.420185 -0.552600 0.281491 -0.784472 
1.270432 -0.184277 0.346853 0.863255 0.004774 0.504746 
-0.193786 -0.077599 0.630227 -0.733291 -0.151930 0.662723 
0.696480 -1.043741 0.350337 -0.000044 -0.999708 0.024174 
0.702952 -1.044515 0.388527 -0.000021 -0.999937 -0.011257 
0.675600 -1.044665 0.346927 -0.085819 -0.993398 0.076133 
0.688200 -1.046247 0.314747 0.004720 -0.999353 0.035665 
1.303818 -0.131087 -0.253270 0.907440 0.150280 -0.392389 
1.319010 -0.129865 -0.213296 0.948254 0.111976 -0.297111 
-1.363490 1.208126 -0.013293 -0.781133 0.083644 -0.618737 
-1.374214 1.180805 0.005697 -0.871823 -0.218045 -0.438612 
-1.017926 1.866806 -1.244391 0.215792 0.862072 0.458548 
-1.050782 1.861946 -1.226949 -0.124079 0.938811 0.321307 
1.614126 -0.521697 -0.094672 0.939031 -0.101262 -0.328584 
1.620872 -0.522541 -0.074080 0.949000 -0.125563 -0.289194 
1.622060 -0.494745 -0.074473 0.950140 0.028815 -0.310490 
0.850210 -0.937047 -0.411287 0.830059 -0.475777 -0.290927 
-1.246418 0.438925 0.309941 -0.796695 -0.283646 0.533688 
-1.251798 0.465925 0.330043 -0.633029 -0.639089 0.436852 
-1.257562 0.412245 0.289733 -0.875766 0.110459 0.469929 
-1.244108 0.411745 0.310257 -0.821442 0.134192 0.554279 
-1.255152 0.384965 0.309869 -0.817160 0.317064 0.481373 
0.079122 -0.968585 -0.316832 0.082249 -0.996296 -0.025077 
0.100898 -0.966063 -0.314783 -0.000576 -0.999053 -0.043516 
-0.041332 -0.966907 -0.454067 0.015101 -0.999118 -0.039172 
-0.021394 -0.967645 -0.449385 0.013978 -0.999672 -0.021441 
-0.035964 -0.968943 -0.413865 0.065239 -0.997222 -0.035948 
-0.027722 -0.967271 -0.488269 0.004113 -0.999942 -0.009966 
-0.015120 -0.968051 -0.410518 0.017766 -0.998954 -0.042123 
0.038288 -0.968759 -0.324942 0.018611 -0.998883 -0.043440 
0.058326 -0.969487 -0.320204 0.010873 -0.999364 -0.033970 
1.148690 -0.743455 0.415031 -0.166974 -0.058405 0.984230 
1.168632 -0.742831 0.419583 -0.227541 -0.014799 0.973656 
1.148842 -0.714781 0.415103 -0.089885 0.050052 0.994694 
1.148640 -0.772367 0.412067 -0.220550 -0.166868 0.960996 
-0.435700 -0.290055 -0.578623 0.007793 -0.207512 -0.978202 
-0.455928 -0.232904 -0.587013 -0.196593 -0.222063 -0.955008 
-0.435966 -0.232539 -0.589013 -0.029025 -0.201883 -0.978979 
1.288396 -0.075565 0.326259 0.901956 -0.006177 0.431783 
1.285040 -0.103833 0.331759 0.889123 -0.047864 0.455158 
1.251830 -0.047553 0.391703 0.906030 0.029384 0.422193 
1.251914 -0.074521 0.390655 0.901558 0.005941 0.432618 
1.261500 -0.048537 0.369307 0.875763 0.046562 0.480491 
-0.241088 -1.060956 0.210321 0.106339 -0.993871 0.030201 
-0.227610 -1.060829 0.176977 0.171674 -0.982834 0.067560 
0.262833 -0.114945 -0.975615 0.113785 0.066515 -0.991276 
0.243029 -0.143125 -0.976291 -0.055696 -0.062650 -0.996480 
0.959390 -0.176771 0.705799 0.652976 -0.118615 0.748033 
0.959984 -0.149693 0.707001 0.686045 -0.007989 0.727515 
-0.417130 -0.870243 -0.664303 -0.622093 0.493407 -0.607906 
-0.385636 -0.874201 -0.683589 -0.534878 0.458691 -0.709583 
-0.426338 -0.869949 -0.643617 -0.762733 0.581084 -0.283865 
-0.404002 -0.843277 -0.644075 -0.670678 0.678920 -0.298761 
-0.680782 0.971505 -0.285120 0.513125 0.378508 -0.770347 
-1.222608 -0.244261 -0.146966 -0.784364 -0.581309 -0.216454 
0.712846 -0.760345 0.695119 0.485444 -0.519050 0.703514 
0.045000 -1.035941 -0.597307 -0.142618 -0.604004 0.784117 
0.065810 -1.035071 -0.593981 -0.102718 -0.594940 0.797179 
0.098730 0.832685 0.090063 -0.281367 0.957484 0.063699 
0.087032 0.827905 0.114947 -0.274580 0.958410 0.077820 
0.111120 0.833045 0.123569 -0.254264 0.961847 0.100999 
0.025022 0.808085 0.121831 -0.340014 0.922194 0.184252 
0.012564 0.807985 0.088271 -0.334822 0.936614 0.103193 
-0.000078 0.800585 0.112745 -0.343411 0.924148 0.167392 
0.038928 0.817205 0.097553 -0.278278 0.954265 0.109266 
-1.024516 1.367866 -0.975451 -0.980903 0.143476 -0.131315 
-1.022068 1.367726 -0.995433 -0.976698 0.148495 -0.154952 
-1.034570 1.368266 -0.895489 -0.979437 0.070520 -0.189022 
-1.017986 1.367625 -1.015565 -0.979200 0.157540 -0.127860 
-0.996170 0.800025 0.826693 0.299115 0.407946 0.862619 
-0.965732 0.744685 0.835891 0.405387 0.301663 0.862937 
-0.961408 0.716425 0.841743 0.416926 0.132354 0.899253 
-0.791138 0.011581 0.685943 0.118218 -0.209058 0.970731 
-0.771278 0.012109 0.683123 0.241406 -0.166566 0.956022 
-0.771384 0.039597 0.683411 0.252921 -0.112673 0.960904 
-0.751136 -0.017479 0.669719 0.023981 -0.207995 0.977836 
-0.731032 -0.045779 0.666907 -0.301620 -0.085987 0.949543 
-1.128422 0.141315 0.523699 -0.743016 0.169555 0.647440 
-1.144092 0.113969 0.512033 -0.758793 0.145454 0.634883 
-1.131112 0.114405 0.527313 -0.746297 0.148707 0.648789 
-1.170750 0.113075 0.482041 -0.708953 0.078272 0.700899 
-1.117692 0.114917 0.542065 -0.718983 0.134684 0.681854 
-1.101824 0.142257 0.553555 -0.689933 0.152208 0.707690 
-1.103634 0.115419 0.556143 -0.668829 0.100140 0.736641 
-1.088072 0.115691 0.568823 -0.628543 0.092409 0.772266 
1.122970 -0.981067 0.199319 0.304329 -0.912049 0.274866 
1.112996 -0.974473 0.227833 0.267230 -0.905084 0.330772 
1.148266 -0.971897 0.196273 0.356636 -0.899059 0.253977 
1.080396 -0.972135 0.255469 0.276925 -0.880831 0.383992 
-0.668318 1.431986 -0.049809 -0.248274 0.720279 0.647733 
-0.647178 1.430586 -0.042512 -0.159602 0.684373 0.711449 
0.611719 0.825645 -0.263276 0.204254 0.884341 -0.419787 
0.249009 0.432725 0.651507 -0.145037 0.270023 0.951868 
0.268992 0.432765 0.653785 -0.073807 0.303815 0.949868 
0.989256 -0.123101 0.679029 0.602120 0.119760 0.789373 
1.005914 -0.122945 0.668049 0.537769 0.148369 0.829934 
0.975322 -0.149725 0.694021 0.626993 0.033937 0.778285 
0.975510 -0.176633 0.694107 0.607166 -0.098452 0.788452 
1.433576 -0.734385 -0.251513 0.633049 -0.484553 -0.603703 
1.425034 -0.706739 -0.277243 0.587233 -0.394512 -0.706766 
1.345578 -0.702589 -0.325396 0.400029 -0.261319 -0.878458 
1.325482 -0.672859 -0.340567 0.294194 -0.069022 -0.953250 
